# 3D point list with one line of data per point:
#   POINT3D_ID, X, Y, Z, R, G, B, ERROR, TRACK[] as (IMAGE_ID, POINT2D_IDX)
# Number of points: 828
24432 0.477667 0.083645 0.982666 128 128 255 1.0000 40 0
24433 0.820044 -0.242813 1.512648 128 128 255 1.0000 6 0
24434 0.982075 0.072577 1.358365 128 128 255 1.0000 40 0
24435 1.078188 0.087816 0.841537 128 128 255 1.0000 40 0
24436 1.302626 -0.724500 1.138180 128 128 255 1.0000 40 0
24437 1.024003 -0.592542 1.506593 128 128 255 1.0000 40 0
24438 0.708426 -0.231118 0.900433 128 128 255 1.0000 40 0
24439 0.585370 -0.425031 1.582882 128 128 255 1.0000 40 0
24440 1.419680 -0.449540 0.887388 128 128 255 1.0000 40 0
24441 1.088656 -0.102442 1.379633 128 128 255 1.0000 40 0
24442 1.895875 -0.351233 -0.350147 128 128 255 1.0000 40 0
24443 0.314700 -0.067644 1.342488 128 128 255 1.0000 40 0
24444 0.877433 -0.045792 1.446487 128 128 255 1.0000 40 0
24445 1.461362 -0.030724 1.315405 128 128 255 1.0000 40 0
24446 0.817981 -0.000514 1.493208 128 128 255 1.0000 40 0
24447 0.523268 0.021316 0.907677 128 128 255 1.0000 40 0
24448 0.651747 0.028345 1.403859 128 128 255 1.0000 40 0
24449 0.930276 0.020098 1.393401 128 128 255 1.0000 40 0
24450 0.715123 0.030606 0.860269 128 128 255 1.0000 40 0
24451 1.004704 0.048804 1.391743 128 128 255 1.0000 40 0
24452 0.722367 0.035671 0.904828 128 128 255 1.0000 40 0
24453 0.667827 0.071741 1.433773 128 128 255 1.0000 40 0
24454 0.833311 0.070662 1.402044 128 128 255 1.0000 40 0
24455 0.517947 0.090797 0.982155 128 128 255 1.0000 40 0
24456 1.055123 0.064469 1.193658 128 128 255 1.0000 40 0
24457 0.603305 0.074573 0.994827 128 128 255 1.0000 40 0
24458 0.965801 0.092311 1.270617 128 128 255 1.0000 40 0
24459 0.715664 -0.506296 1.368894 128 128 255 1.0000 40 0
24460 0.501937 0.049843 0.658274 128 128 255 1.0000 6 0
24461 0.393252 -0.017079 1.409269 128 128 255 1.0000 40 0
24462 0.919618 0.020664 1.399518 128 128 255 1.0000 40 0
24463 1.061580 0.028652 0.842883 128 128 255 1.0000 40 0
24464 0.829994 0.030325 1.391199 128 128 255 1.0000 40 0
24465 0.806610 0.063480 1.375629 128 128 255 1.0000 40 0
24466 1.110605 0.068885 0.836524 128 128 255 1.0000 40 0
24467 0.759859 0.092379 1.309390 128 128 255 1.0000 40 0
24468 2.001917 -0.538763 0.248973 128 128 255 1.0000 40 0
24469 0.067507 0.091950 -0.334240 128 128 255 1.0000 6 0
24470 2.130868 -0.438370 0.691759 128 128 255 1.0000 40 0
24471 2.059152 -0.439631 0.249583 128 128 255 1.0000 40 0
24472 1.916288 -0.531028 -0.151995 128 128 255 1.0000 40 0
24473 0.555956 -0.151149 1.559481 128 128 255 1.0000 40 0
24474 1.931715 -0.439756 -0.507938 128 128 255 1.0000 40 0
24475 0.315861 0.082936 0.350292 128 128 255 1.0000 6 0
24476 1.716223 -0.548140 -1.364419 128 128 255 1.0000 40 0
24477 1.325018 -0.069561 1.334719 128 128 255 1.0000 40 0
24478 1.368791 -0.362777 -1.721893 128 128 255 1.0000 40 0
24479 0.353653 -0.009108 1.346264 128 128 255 1.0000 40 0
24480 0.788478 -0.751362 0.528097 128 128 255 1.0000 40 0
24481 1.144716 -0.817327 0.500652 128 128 255 1.0000 40 0
24482 -0.291935 -0.791021 0.932782 128 128 255 1.0000 40 0
24483 1.692301 -0.444442 1.282038 128 128 255 1.0000 40 0
24484 1.231258 -0.392237 -1.670485 128 128 255 1.0000 43 0
24485 1.066979 -0.390214 -1.758101 128 128 255 1.0000 40 0
24486 2.192435 -0.117304 0.565443 128 128 255 1.0000 40 0
24487 1.100129 -0.024278 1.369643 128 128 255 1.0000 40 0
24488 1.174270 0.002247 1.355680 128 128 255 1.0000 40 0
24489 1.089690 -0.439552 1.462769 128 128 255 1.0000 40 0
24490 1.559862 -0.685817 0.736384 128 128 255 1.0000 40 0
24491 1.993980 -0.536824 0.258323 128 128 255 1.0000 40 0
24492 1.040754 -0.120836 1.379257 128 128 255 1.0000 40 0
24493 1.106192 -0.126428 1.368256 128 128 255 1.0000 40 0
24494 1.801606 -0.331498 1.366692 128 128 255 1.0000 40 0
24495 1.874618 -0.308899 1.339068 128 128 255 1.0000 40 0
24496 1.838453 -0.512488 -0.590435 128 128 255 1.0000 40 0
24497 1.739152 -0.201166 1.294813 128 128 255 1.0000 40 0
24498 0.709125 -0.354432 -1.557174 128 128 255 1.0000 40 0
24499 1.990271 -0.144899 0.023763 128 128 255 1.0000 40 0
24500 1.834246 -0.204439 -1.159081 128 128 255 1.0000 40 0
24501 1.914843 -0.068465 0.380668 128 128 255 1.0000 40 0
24502 1.822355 0.062669 0.615263 128 128 255 1.0000 40 0
24503 0.195871 0.078531 1.252801 128 128 255 1.0000 40 0
24504 0.186213 -0.474554 -0.047424 128 128 255 1.0000 6 0
24505 0.901816 0.027002 1.398365 128 128 255 1.0000 40 0
24506 1.181027 0.068414 0.839149 128 128 255 1.0000 40 0
24507 0.605253 0.099243 1.315798 128 128 255 1.0000 40 0
24508 0.336662 -0.805305 1.435405 128 128 255 1.0000 40 0
24509 0.806254 -0.414807 1.389522 128 128 255 1.0000 40 0
24510 1.293592 -0.315541 1.444868 128 128 255 1.0000 40 0
24511 0.777178 -0.212807 1.525839 128 128 255 1.0000 40 0
24512 1.068551 -0.181055 1.387134 128 128 255 1.0000 40 0
24513 1.923751 -0.576822 -0.441052 128 128 255 1.0000 40 0
24514 0.280636 -0.567373 -0.089257 128 128 255 1.0000 6 0
24515 0.900128 -0.442907 -1.778866 128 128 255 1.0000 40 0
24516 1.501134 -0.075211 1.304826 128 128 255 1.0000 40 0
24517 0.707609 -0.018539 1.530901 128 128 255 1.0000 40 0
24518 1.231077 0.001462 1.348143 128 128 255 1.0000 40 0
24519 1.590705 0.035174 1.268991 128 128 255 1.0000 40 0
24520 0.475641 0.085085 0.982450 128 128 255 1.0000 40 0
24521 0.992688 0.090088 0.883483 128 128 255 1.0000 40 0
24522 1.262166 -0.453126 1.265478 128 128 255 1.0000 40 0
24523 1.089257 -0.322956 1.486097 128 128 255 1.0000 40 0
24524 0.611310 -0.229539 1.544907 128 128 255 1.0000 40 0
24525 1.107005 -0.122331 1.369482 128 128 255 1.0000 40 0
24526 1.946431 -0.368472 -0.473739 128 128 255 1.0000 40 0
24527 1.924634 -0.208492 0.606739 128 128 255 1.0000 40 0
24528 1.347479 -0.026806 1.323291 128 128 255 1.0000 40 0
24529 1.231924 0.000670 1.349710 128 128 255 1.0000 40 0
24530 0.374280 -0.758815 1.259977 128 128 255 1.0000 40 0
24531 0.914082 -0.156588 1.396019 128 128 255 1.0000 40 0
24532 0.826641 -0.183975 1.533375 128 128 255 1.0000 40 0
24533 0.647745 -0.341857 -1.535201 128 128 255 1.0000 40 0
24534 0.517079 -0.336464 -1.480999 128 128 255 1.0000 40 0
24535 1.960319 -0.239124 -1.033139 128 128 255 1.0000 40 0
24536 0.540212 0.032799 0.892852 128 128 255 1.0000 40 0
24537 0.240458 0.095426 1.250815 128 128 255 1.0000 40 0
24538 0.966388 0.050697 1.392007 128 128 255 1.0000 40 0
24539 0.556640 -0.381639 1.826747 128 128 255 1.0000 40 0
24540 0.360960 -0.106981 1.447094 128 128 255 1.0000 40 0
24541 0.470998 -0.102046 1.556152 128 128 255 1.0000 40 0
24542 0.903583 0.055154 0.855068 128 128 255 1.0000 40 0
24543 1.100414 -0.437262 1.460492 128 128 255 1.0000 40 0
24544 1.464359 -0.418798 1.335237 128 128 255 1.0000 40 0
24545 0.412422 -0.234109 1.494343 128 128 255 1.0000 40 0
24546 1.500923 -0.217604 1.351229 128 128 255 1.0000 40 0
24547 1.344882 0.075484 1.179166 128 128 255 1.0000 40 0
24548 1.155965 0.074894 0.837804 128 128 255 1.0000 40 0
24549 -0.812953 -0.705508 -0.207385 128 128 255 1.0000 6 0
24550 1.327760 -0.822449 0.150424 128 128 255 1.0000 40 0
24551 0.398866 -0.299037 1.513678 128 128 255 1.0000 40 0
24552 2.171147 -0.352885 0.971274 128 128 255 1.0000 40 0
24553 1.950303 -0.210468 -0.282704 128 128 255 1.0000 40 0
24554 -0.534513 -0.176531 0.183340 128 128 255 1.0000 40 0
24555 0.717773 0.069467 0.927598 128 128 255 1.0000 40 0
24556 0.886543 -0.684129 1.542056 128 128 255 1.0000 40 0
24557 1.695831 -0.461808 1.297237 128 128 255 1.0000 40 0
24558 0.435278 -0.240462 1.572603 128 128 255 1.0000 40 0
24559 0.280758 -0.582332 -0.148603 128 128 255 1.0000 3 0
24560 1.490687 0.072037 1.278221 128 128 255 1.0000 40 0
24561 0.347334 -0.807190 1.516519 128 128 255 1.0000 40 0
24562 0.331845 -0.626643 1.627990 128 128 255 1.0000 40 0
24563 1.081207 -0.125597 1.370714 128 128 255 1.0000 40 0
24564 1.402541 0.071880 1.166304 128 128 255 1.0000 40 0
24565 0.551704 0.082787 0.971066 128 128 255 1.0000 40 0
24566 0.924940 0.093776 0.850517 128 128 255 1.0000 40 0
24567 1.135993 -0.165943 1.386102 128 128 255 1.0000 40 0
24568 1.862130 -0.544686 -0.479609 128 128 255 1.0000 40 0
24569 1.943670 -0.363867 -0.474293 128 128 255 1.0000 40 0
24570 -0.638665 -0.489899 1.228359 128 128 255 1.0000 6 0
24571 0.965677 0.091902 1.270728 128 128 255 1.0000 40 0
24572 1.317372 -0.136047 1.332173 128 128 255 1.0000 40 0
24573 1.776541 -0.404107 -1.212125 128 128 255 1.0000 40 0
24574 2.142872 0.062103 0.665418 128 128 255 1.0000 40 0
24575 0.488432 0.030758 0.910032 128 128 255 1.0000 40 0
24576 0.732125 -0.507195 1.467817 128 128 255 1.0000 40 0
24577 0.533509 -0.634819 1.578350 128 128 255 1.0000 40 0
24578 1.634089 -0.440611 1.090502 128 128 255 1.0000 40 0
24579 -0.751610 -0.275521 0.245244 128 128 255 1.0000 40 0
24580 1.340310 0.075726 1.208685 128 128 255 1.0000 40 0
24581 2.232079 -0.145015 1.331651 128 128 255 1.0000 40 0
24582 1.861406 -0.039435 0.561206 128 128 255 1.0000 40 0
24583 1.360745 -0.651698 1.456536 128 128 255 1.0000 40 0
24584 0.617345 -0.231878 0.269641 128 128 255 1.0000 40 0
24585 0.693638 0.091556 0.982826 128 128 255 1.0000 40 0
24586 0.493260 -0.230345 1.567954 128 128 255 1.0000 40 0
24587 1.813568 -0.386353 1.378802 128 128 255 1.0000 40 0
24588 2.225416 -0.225888 1.284083 128 128 255 1.0000 40 0
24589 2.005928 -0.458956 0.202859 128 128 255 1.0000 40 0
24590 0.855751 -0.083367 1.517166 128 128 255 1.0000 40 0
24591 -0.330504 -0.034083 0.199672 128 128 255 1.0000 6 0
24592 0.930393 0.045828 1.395677 128 128 255 1.0000 40 0
24593 1.236007 0.078055 0.834230 128 128 255 1.0000 40 0
24594 0.924799 0.082732 0.849905 128 128 255 1.0000 40 0
24595 0.772114 -0.130186 1.532632 128 128 255 1.0000 6 0
24596 0.472198 -0.261049 1.374572 128 128 255 1.0000 40 0
24597 0.454038 0.088888 0.564592 128 128 255 1.0000 6 0
24598 0.838421 0.094155 0.874024 128 128 255 1.0000 40 0
24599 0.431968 -0.201424 1.518414 128 128 255 1.0000 40 0
24600 1.511416 -0.292698 1.434629 128 128 255 1.0000 40 0
24601 3.139609 -0.707688 0.483332 128 128 255 1.0000 40 0
24602 1.890529 -0.030485 0.612309 128 128 255 1.0000 40 0
24603 1.792566 0.032235 0.840783 128 128 255 1.0000 40 0
24604 1.983780 -0.307394 -0.254189 128 128 255 1.0000 40 0
24605 1.490838 -0.447829 1.344414 128 128 255 1.0000 40 0
24606 -0.171597 0.088155 0.403022 128 128 255 1.0000 6 0
24607 0.521449 -0.052406 0.347990 128 128 255 1.0000 40 0
24608 1.181337 -0.011531 1.359406 128 128 255 1.0000 40 0
24609 1.485719 -0.822165 0.072894 128 128 255 1.0000 40 0
24610 1.067338 -0.811403 0.481114 128 128 255 1.0000 40 0
24611 -0.200218 -0.832178 0.684331 128 128 255 1.0000 40 0
24612 1.498499 -0.469314 1.421343 128 128 255 1.0000 40 0
24613 2.133907 -0.527016 1.216556 128 128 255 1.0000 40 0
24614 0.186110 -0.675988 0.684099 128 128 255 1.0000 40 0
24615 0.766184 -0.186834 1.516762 128 128 255 1.0000 40 0
24616 0.618278 -0.232966 0.272757 128 128 255 1.0000 40 0
24617 0.798774 -0.023931 1.521981 128 128 255 1.0000 40 0
24618 1.043093 0.072827 1.374600 128 128 255 1.0000 40 0
24619 2.188784 -0.221450 1.030063 128 128 255 1.0000 40 0
24620 1.506487 -0.418445 1.402464 128 128 255 1.0000 40 0
24621 3.694512 -1.344970 1.652005 128 128 255 1.0000 40 0
24622 1.106372 -0.153814 -1.385351 128 128 255 1.0000 40 0
24623 0.736197 -0.147694 1.522184 128 128 255 1.0000 40 0
24624 1.968489 0.069532 0.593898 128 128 255 1.0000 40 0
24625 0.727883 -0.180261 1.522450 128 128 255 1.0000 40 0
24626 1.487892 -0.452071 1.354834 128 128 255 1.0000 40 0
24627 1.162443 -0.679359 0.774065 128 128 255 1.0000 40 0
24628 0.772889 -0.013449 1.537995 128 128 255 1.0000 40 0
24629 0.487147 -0.777301 1.431587 128 128 255 1.0000 40 0
24630 1.172985 -0.244208 -1.406886 128 128 255 1.0000 40 0
24631 1.224059 -0.037549 1.343817 128 128 255 1.0000 40 0
24632 2.227795 -0.151525 1.283533 128 128 255 1.0000 40 0
24633 2.179298 -0.076582 0.900658 128 128 255 1.0000 40 0
24634 1.510894 -0.578291 1.409596 128 128 255 1.0000 40 0
24635 1.786688 0.060099 0.982442 128 128 255 1.0000 40 0
24636 0.756819 -0.012922 1.544854 128 128 255 1.0000 40 0
24637 2.057707 -0.526490 0.765395 128 128 255 1.0000 40 0
24638 -0.927471 -0.436786 -0.351565 128 128 255 1.0000 6 0
24639 2.115482 -0.528941 1.094156 128 128 255 1.0000 40 0
24640 -0.583255 -0.382132 1.131406 128 128 255 1.0000 6 0
24641 0.660783 -0.163171 0.058517 128 128 255 1.0000 40 0
24642 -0.368353 -0.347523 1.106247 128 128 255 1.0000 6 0
24643 -0.186756 -0.850738 0.309901 128 128 255 1.0000 40 0
24644 2.147308 -0.614086 1.338477 128 128 255 1.0000 6 0
24645 -0.075123 -0.674061 -0.956605 128 128 255 1.0000 40 0
24646 0.521947 -0.526360 -1.567243 128 128 255 1.0000 6 0
24647 -0.156732 -0.268105 1.391768 128 128 255 1.0000 6 0
24648 1.841260 -0.591773 1.341111 128 128 255 1.0000 40 0
24649 0.945796 -0.758460 0.228913 128 128 255 1.0000 40 0
24650 2.230987 -0.561018 1.251954 128 128 255 1.0000 6 0
24651 0.527022 -0.040953 1.472821 128 128 255 1.0000 40 0
24652 1.412628 -0.686280 0.093301 128 128 255 1.0000 40 0
24653 0.717588 -0.230857 1.522790 128 128 255 1.0000 6 0
24654 1.328564 -0.012675 1.332270 128 128 255 1.0000 40 0
24655 0.684105 -0.150125 1.531800 128 128 255 1.0000 40 0
24656 -0.963276 -0.125242 -0.146656 128 128 255 1.0000 6 0
24657 2.196968 -0.654206 1.304131 128 128 255 1.0000 40 0
24658 1.588063 -0.841586 1.066799 128 128 255 1.0000 24 0
24659 2.127895 -0.456445 0.996709 128 128 255 1.0000 40 0
24660 1.294123 -0.382357 1.462230 128 128 255 1.0000 40 0
24661 -0.907761 -0.115645 -0.612807 128 128 255 1.0000 6 0
24662 -0.716294 -0.134577 0.665999 128 128 255 1.0000 40 0
24663 0.993900 -0.101180 1.383299 128 128 255 1.0000 6 0
24664 1.416556 -0.449504 0.888105 128 128 255 1.0000 40 0
24665 0.417693 -0.817040 1.182234 128 128 255 1.0000 41 0
24666 1.099691 -0.714967 1.473320 128 128 255 1.0000 41 0
24667 0.266311 -0.807347 0.968169 128 128 255 1.0000 41 0
24668 0.729912 -0.508447 1.459091 128 128 255 1.0000 41 0
24669 0.762381 -0.539955 1.473318 128 128 255 1.0000 41 0
24670 -0.019532 -0.832774 1.325027 128 128 255 1.0000 41 0
24671 0.746732 -0.654032 0.207214 128 128 255 1.0000 41 0
24672 1.487588 -0.447745 1.402182 128 128 255 1.0000 41 0
24673 0.821694 -0.259175 1.530649 128 128 255 1.0000 41 0
24674 0.268125 0.061832 0.045897 128 128 255 1.0000 6 0
24675 1.293655 -0.268388 1.458739 128 128 255 1.0000 41 0
24676 0.902744 -0.136905 1.419465 128 128 255 1.0000 41 0
24677 0.412351 -0.233811 1.489080 128 128 255 1.0000 41 0
24678 1.146395 -0.139654 1.363568 128 128 255 1.0000 41 0
24679 1.205007 -0.454346 -0.503449 128 128 255 1.0000 41 0
24680 1.950717 -0.439002 -0.403155 128 128 255 1.0000 41 0
24681 0.709850 -0.113821 1.543511 128 128 255 1.0000 41 0
24682 1.576478 -0.164850 1.294343 128 128 255 1.0000 41 0
24683 1.312673 -0.092921 1.345758 128 128 255 1.0000 41 0
24684 1.210537 -0.025208 1.352423 128 128 255 1.0000 41 0
24685 0.947416 0.004806 1.410156 128 128 255 1.0000 41 0
24686 1.230761 0.003408 1.349699 128 128 255 1.0000 41 0
24687 0.703103 0.015247 0.812434 128 128 255 1.0000 41 0
24688 1.011652 0.012567 1.379053 128 128 255 1.0000 41 0
24689 1.344357 0.017831 1.342037 128 128 255 1.0000 41 0
24690 1.475695 0.066114 0.696632 128 128 255 1.0000 41 0
24691 0.716511 0.032551 0.864273 128 128 255 1.0000 41 0
24692 0.576026 0.088124 0.971981 128 128 255 1.0000 41 0
24693 1.100278 -0.624858 1.473059 128 128 255 1.0000 41 0
24694 0.778631 -0.534412 1.507958 128 128 255 1.0000 41 0
24695 0.044111 -0.856774 1.395236 128 128 255 1.0000 41 0
24696 0.429124 -0.733268 -0.232466 128 128 255 1.0000 6 0
24697 0.662720 -0.297102 1.545456 128 128 255 1.0000 41 0
24698 0.822513 -0.258935 1.529908 128 128 255 1.0000 41 0
24699 1.670801 -0.456451 1.220792 128 128 255 1.0000 41 0
24700 0.895402 -0.159285 1.401208 128 128 255 1.0000 41 0
24701 1.094962 -0.169107 1.374019 128 128 255 1.0000 41 0
24702 0.816563 -0.188506 1.531279 128 128 255 1.0000 41 0
24703 1.222338 -0.140334 1.350050 128 128 255 1.0000 41 0
24704 1.370461 -0.171933 1.329114 128 128 255 1.0000 41 0
24705 0.781900 -0.112890 1.513617 128 128 255 1.0000 41 0
24706 0.346411 -0.658806 -0.449331 128 128 255 1.0000 6 0
24707 1.154508 -0.037272 1.357091 128 128 255 1.0000 41 0
24708 0.493355 -0.602606 -0.384641 128 128 255 1.0000 6 0
24709 1.079029 0.001334 1.374844 128 128 255 1.0000 41 0
24710 1.380566 0.022964 1.327023 128 128 255 1.0000 41 0
24711 0.673969 0.077376 1.420231 128 128 255 1.0000 41 0
24712 0.675153 0.069546 1.426903 128 128 255 1.0000 41 0
24713 1.235590 0.071121 0.829012 128 128 255 1.0000 41 0
24714 1.090877 0.079012 1.371473 128 128 255 1.0000 41 0
24715 0.816580 0.068465 0.873486 128 128 255 1.0000 41 0
24716 1.436585 -0.854281 1.096940 128 128 255 1.0000 41 0
24717 0.865778 -0.446885 1.395277 128 128 255 1.0000 41 0
24718 1.103533 -0.827815 -0.484677 128 128 255 1.0000 6 0
24719 0.732598 -0.507990 1.467153 128 128 255 1.0000 41 0
24720 1.286068 -0.440318 1.346745 128 128 255 1.0000 41 0
24721 0.698164 -0.326220 1.558605 128 128 255 1.0000 41 0
24722 1.670908 -0.431321 1.275078 128 128 255 1.0000 41 0
24723 0.826061 -0.187372 1.539087 128 128 255 1.0000 41 0
24724 1.187307 -0.168625 1.361780 128 128 255 1.0000 41 0
24725 0.780212 -0.125733 1.512437 128 128 255 1.0000 41 0
24726 0.503256 -0.424717 -0.365120 128 128 255 1.0000 41 0
24727 0.714150 -0.111739 1.538282 128 128 255 1.0000 41 0
24728 1.266208 -0.070627 1.342656 128 128 255 1.0000 41 0
24729 0.584585 -0.047262 1.553045 128 128 255 1.0000 41 0
24730 0.933355 -0.039144 1.395509 128 128 255 1.0000 41 0
24731 1.231926 -0.038799 1.350018 128 128 255 1.0000 41 0
24732 0.352890 0.002967 1.398824 128 128 255 1.0000 41 0
24733 1.113719 -0.013889 1.385210 128 128 255 1.0000 41 0
24734 1.329302 -0.015449 1.334963 128 128 255 1.0000 41 0
24735 1.223881 0.028132 1.357900 128 128 255 1.0000 41 0
24736 0.562604 -0.772414 1.523619 128 128 255 1.0000 6 0
24737 1.277423 0.038767 1.327826 128 128 255 1.0000 41 0
24738 1.043999 0.054948 1.375480 128 128 255 1.0000 41 0
24739 1.182394 0.088135 0.847080 128 128 255 1.0000 41 0
24740 1.050155 0.053958 1.192641 128 128 255 1.0000 41 0
24741 0.925598 0.085251 1.366722 128 128 255 1.0000 41 0
24742 -0.926969 -0.474572 -0.163507 128 128 255 1.0000 6 0
24743 0.792876 0.093873 1.322249 128 128 255 1.0000 41 0
24744 1.003045 0.077734 0.902363 128 128 255 1.0000 41 0
24745 0.719787 0.093432 0.945842 128 128 255 1.0000 41 0
24746 0.976179 0.093637 1.264875 128 128 255 1.0000 41 0
24747 0.394506 -0.777874 1.265171 128 128 255 1.0000 41 0
24748 1.411014 -0.676180 -0.209134 128 128 255 1.0000 6 0
24749 0.354244 -0.783141 0.194039 128 128 255 1.0000 41 0
24750 1.678171 -0.459523 1.257934 128 128 255 1.0000 41 0
24751 0.559291 -0.244677 1.561788 128 128 255 1.0000 41 0
24752 0.413091 -0.233628 1.489204 128 128 255 1.0000 41 0
24753 1.124438 -0.122308 1.367573 128 128 255 1.0000 41 0
24754 0.938650 -0.090840 1.416898 128 128 255 1.0000 41 0
24755 1.113626 -0.108386 1.457295 128 128 255 1.0000 41 0
24756 0.962018 -0.005356 1.406856 128 128 255 1.0000 41 0
24757 1.077759 0.001140 1.373662 128 128 255 1.0000 41 0
24758 0.999754 0.011690 1.384336 128 128 255 1.0000 41 0
24759 1.378837 0.007236 1.327982 128 128 255 1.0000 41 0
24760 1.223644 0.013898 0.813943 128 128 255 1.0000 41 0
24761 1.001653 0.021889 1.383226 128 128 255 1.0000 41 0
24762 1.177501 0.036782 1.354640 128 128 255 1.0000 41 0
24763 1.275562 0.038976 1.327437 128 128 255 1.0000 41 0
24764 1.564180 0.060816 1.291138 128 128 255 1.0000 41 0
24765 1.483214 0.064158 0.692018 128 128 255 1.0000 41 0
24766 1.058744 0.028285 0.804385 128 128 255 1.0000 41 0
24767 1.487001 0.071184 1.277129 128 128 255 1.0000 41 0
24768 1.027931 0.076011 1.379185 128 128 255 1.0000 41 0
24769 1.181391 0.087260 0.847696 128 128 255 1.0000 41 0
24770 0.674590 0.096724 1.378849 128 128 255 1.0000 41 0
24771 1.048810 0.053517 1.191741 128 128 255 1.0000 41 0
24772 0.725805 0.078509 0.911225 128 128 255 1.0000 41 0
24773 0.786692 0.094992 1.305034 128 128 255 1.0000 41 0
24774 0.686815 0.090816 0.950020 128 128 255 1.0000 41 0
24775 0.215045 -0.503039 -0.317603 128 128 255 1.0000 1 0
24776 -0.767945 -0.263985 1.090889 128 128 255 1.0000 6 0
24777 0.721439 -0.749819 0.084975 128 128 255 1.0000 41 0
24778 -0.151621 -0.829805 0.995535 128 128 255 1.0000 41 0
24779 0.083010 -0.637843 1.637586 128 128 255 1.0000 41 0
24780 0.368262 -0.318359 1.543025 128 128 255 1.0000 41 0
24781 1.300262 -0.479954 -0.149669 128 128 255 1.0000 41 0
24782 1.452570 -0.194955 1.321875 128 128 255 1.0000 41 0
24783 0.550868 -0.644897 -1.035118 128 128 255 1.0000 41 0
24784 0.446075 -0.533597 -0.875538 128 128 255 1.0000 41 0
24785 1.581575 -0.211347 1.304033 128 128 255 1.0000 41 0
24786 1.311963 -0.094223 1.346398 128 128 255 1.0000 41 0
24787 0.843685 -0.047704 1.484426 128 128 255 1.0000 41 0
24788 0.569608 -0.035357 1.587771 128 128 255 1.0000 41 0
24789 1.815698 -0.034652 0.489358 128 128 255 1.0000 41 0
24790 0.470367 0.019146 0.895870 128 128 255 1.0000 41 0
24791 1.500335 0.076723 1.295405 128 128 255 1.0000 41 0
24792 0.547762 0.049203 0.927445 128 128 255 1.0000 41 0
24793 1.154979 0.063407 0.833667 128 128 255 1.0000 41 0
24794 0.894969 0.040981 0.858868 128 128 255 1.0000 41 0
24795 0.720906 0.040463 0.904571 128 128 255 1.0000 41 0
24796 0.640055 0.049560 0.902395 128 128 255 1.0000 41 0
24797 0.921560 0.069802 1.380561 128 128 255 1.0000 41 0
24798 0.929252 0.085653 1.369139 128 128 255 1.0000 41 0
24799 0.728902 0.078241 0.920819 128 128 255 1.0000 41 0
24800 0.703416 0.074874 0.927869 128 128 255 1.0000 41 0
24801 1.055892 0.065002 1.193816 128 128 255 1.0000 41 0
24802 0.718520 0.093488 0.945420 128 128 255 1.0000 41 0
24803 1.695150 -0.239790 1.416125 128 128 255 1.0000 6 0
24804 0.496883 -0.311692 1.565881 128 128 255 1.0000 41 0
24805 0.081015 -0.414457 1.615990 128 128 255 1.0000 41 0
24806 0.827004 -0.188790 1.547666 128 128 255 1.0000 41 0
24807 -0.210901 -0.008917 0.766175 128 128 255 1.0000 6 0
24808 0.930118 -0.143584 1.397940 128 128 255 1.0000 41 0
24809 1.337122 -0.496917 -0.053585 128 128 255 1.0000 41 0
24810 1.084711 -0.125605 1.371548 128 128 255 1.0000 41 0
24811 0.830797 -0.135626 1.518304 128 128 255 1.0000 41 0
24812 1.198045 -0.109160 1.354508 128 128 255 1.0000 41 0
24813 1.198254 -0.062435 1.360213 128 128 255 1.0000 41 0
24814 -0.320685 0.029880 0.201423 128 128 255 1.0000 6 0
24815 0.645719 0.015131 1.491602 128 128 255 1.0000 41 0
24816 1.612109 0.018600 1.260113 128 128 255 1.0000 41 0
24817 0.331223 0.035867 1.368617 128 128 255 1.0000 41 0
24818 0.708249 0.030700 1.497490 128 128 255 1.0000 41 0
24819 0.509401 0.039696 0.927121 128 128 255 1.0000 41 0
24820 0.806196 0.040406 1.373287 128 128 255 1.0000 41 0
24821 1.085251 0.049331 0.838090 128 128 255 1.0000 41 0
24822 0.675227 0.096483 1.377412 128 128 255 1.0000 41 0
24823 0.669698 0.070362 0.938082 128 128 255 1.0000 41 0
24824 0.633205 0.079026 0.965206 128 128 255 1.0000 41 0
24825 0.685335 0.094800 1.308920 128 128 255 1.0000 41 0
24826 0.892832 0.077837 1.367079 128 128 255 1.0000 41 0
24827 0.536049 -0.687805 0.280102 128 128 255 1.0000 1 0
24828 0.675407 0.092800 0.944101 128 128 255 1.0000 41 0
24829 0.726463 0.094415 0.919843 128 128 255 1.0000 41 0
24830 1.050642 0.082728 1.189839 128 128 255 1.0000 41 0
24831 1.561512 -0.439685 0.627895 128 128 255 1.0000 41 0
24832 0.897173 -0.157159 1.401705 128 128 255 1.0000 41 0
24833 0.609705 -0.231195 1.546993 128 128 255 1.0000 41 0
24834 1.119077 -0.177099 1.377102 128 128 255 1.0000 41 0
24835 1.766175 -0.279882 1.375346 128 128 255 1.0000 41 0
24836 1.094463 -0.018385 1.491250 128 128 255 1.0000 41 0
24837 0.351697 0.028039 1.240507 128 128 255 1.0000 41 0
24838 0.411474 0.014522 1.443637 128 128 255 1.0000 41 0
24839 1.585854 0.033758 1.268184 128 128 255 1.0000 41 0
24840 1.029910 0.032964 0.724361 128 128 255 1.0000 41 0
24841 0.868289 0.023364 0.836344 128 128 255 1.0000 41 0
24842 0.466516 0.040439 0.899329 128 128 255 1.0000 41 0
24843 0.722360 0.064402 0.834756 128 128 255 1.0000 41 0
24844 1.264217 0.090611 1.247503 128 128 255 1.0000 41 0
24845 0.607952 0.094421 1.313585 128 128 255 1.0000 41 0
24846 0.969899 0.093386 1.376493 128 128 255 1.0000 41 0
24847 0.951275 0.062028 0.897270 128 128 255 1.0000 41 0
24848 0.309065 -0.808833 1.275281 128 128 255 1.0000 41 0
24849 0.438794 -0.444308 1.518724 128 128 255 1.0000 41 0
24850 0.368306 -0.165329 1.446824 128 128 255 1.0000 41 0
24851 0.940900 -0.089206 1.414632 128 128 255 1.0000 41 0
24852 1.240739 -0.125177 1.352472 128 128 255 1.0000 41 0
24853 0.914521 -0.040890 1.393191 128 128 255 1.0000 41 0
24854 1.847603 -0.127676 0.423351 128 128 255 1.0000 41 0
24855 1.230366 0.032236 1.364344 128 128 255 1.0000 41 0
24856 0.866407 0.066615 1.362128 128 128 255 1.0000 41 0
24857 0.870173 0.086917 1.368570 128 128 255 1.0000 41 0
24858 0.964970 0.086134 1.369888 128 128 255 1.0000 41 0
24859 0.687242 0.089515 0.947231 128 128 255 1.0000 41 0
24860 -0.703331 -0.521347 1.028418 128 128 255 1.0000 6 0
24861 1.134308 -0.746951 1.302940 128 128 255 1.0000 41 0
24862 0.473189 -0.773485 0.933258 128 128 255 1.0000 41 0
24863 0.728951 -0.509858 1.452173 128 128 255 1.0000 41 0
24864 0.585847 -0.384276 1.578487 128 128 255 1.0000 41 0
24865 0.766601 -0.206188 1.516259 128 128 255 1.0000 41 0
24866 1.067268 -0.180086 1.384104 128 128 255 1.0000 41 0
24867 1.822674 -0.552592 -1.032934 128 128 255 1.0000 41 0
24868 0.556483 -0.109133 1.558729 128 128 255 1.0000 41 0
24869 1.819419 -0.138393 0.514447 128 128 255 1.0000 41 0
24870 0.623605 0.094785 0.982124 128 128 255 1.0000 41 0
24871 0.840122 0.096290 0.924358 128 128 255 1.0000 41 0
24872 0.342574 -0.761746 0.959653 128 128 255 1.0000 41 0
24873 0.776013 -0.419037 1.006255 128 128 255 1.0000 6 0
24874 1.275008 -0.441270 1.259578 128 128 255 1.0000 41 0
24875 0.718686 -0.682482 -0.100987 128 128 255 1.0000 41 0
24876 1.289551 -0.311122 1.439757 128 128 255 1.0000 41 0
24877 0.414514 -0.279480 1.541870 128 128 255 1.0000 41 0
24878 0.488177 -0.296582 1.573517 128 128 255 1.0000 41 0
24879 1.200269 -0.139515 1.354712 128 128 255 1.0000 41 0
24880 1.309746 -0.069425 1.335549 128 128 255 1.0000 41 0
24881 0.761408 -0.047149 1.523198 128 128 255 1.0000 41 0
24882 -0.173521 0.077326 0.925727 128 128 255 1.0000 41 0
24883 1.065815 -0.781473 1.415147 128 128 255 1.0000 41 0
24884 0.908415 -0.591239 1.529507 128 128 255 1.0000 41 0
24885 0.822512 -0.622863 0.570992 128 128 255 1.0000 41 0
24886 0.255224 -0.811388 0.927051 128 128 255 1.0000 41 0
24887 1.179078 -0.443555 0.699094 128 128 255 1.0000 41 0
24888 2.100796 -0.561786 0.986701 128 128 255 1.0000 41 0
24889 -0.743290 -0.475016 0.465945 128 128 255 1.0000 41 0
24890 1.932460 0.037958 1.283979 128 128 255 1.0000 41 0
24891 -0.305815 -0.619267 -0.502783 128 128 255 1.0000 1 0
24892 1.165250 0.066082 1.360067 128 128 255 1.0000 41 0
24893 0.577051 0.087898 0.972548 128 128 255 1.0000 41 0
24894 -0.085786 -0.849338 0.982899 128 128 255 1.0000 41 0
24895 1.090545 -0.151991 1.375001 128 128 255 1.0000 41 0
24896 1.045000 0.006965 1.375192 128 128 255 1.0000 41 0
24897 1.632064 0.020991 1.298158 128 128 255 1.0000 41 0
24898 1.687297 0.031010 1.177929 128 128 255 1.0000 41 0
24899 1.211605 -0.664952 -1.458169 128 128 255 1.0000 6 0
24900 1.289347 -0.312491 1.442932 128 128 255 1.0000 41 0
24901 0.718034 -0.679483 -0.097547 128 128 255 1.0000 33 0
24902 0.766962 -0.205619 1.516843 128 128 255 1.0000 41 0
24903 2.009763 -0.546323 0.251381 128 128 255 1.0000 41 0
24904 1.695369 -0.098872 1.288020 128 128 255 1.0000 41 0
24905 0.450653 0.100070 1.298833 128 128 255 1.0000 41 0
24906 0.904571 0.053911 0.855807 128 128 255 1.0000 41 0
24907 0.946940 0.083001 1.372262 128 128 255 1.0000 41 0
24908 0.923070 0.067382 0.853336 128 128 255 1.0000 41 0
24909 1.013902 0.067048 1.188592 128 128 255 1.0000 41 0
24910 1.586161 -0.653138 1.418617 128 128 255 1.0000 41 0
24911 1.914703 -0.466085 1.348894 128 128 255 1.0000 6 0
24912 0.610831 -0.233680 1.545283 128 128 255 1.0000 41 0
24913 0.917885 -0.140893 1.396686 128 128 255 1.0000 41 0
24914 -0.509830 -0.243932 -1.267440 128 128 255 1.0000 6 0
24915 1.148302 0.004013 1.360428 128 128 255 1.0000 41 0
24916 0.349708 0.032185 1.330958 128 128 255 1.0000 41 0
24917 1.076110 0.037002 0.849160 128 128 255 1.0000 41 0
24918 0.846555 0.029271 0.860774 128 128 255 1.0000 41 0
24919 0.644212 0.064920 1.315312 128 128 255 1.0000 41 0
24920 1.083193 0.063260 0.841678 128 128 255 1.0000 41 0
24921 0.931515 0.069895 1.381357 128 128 255 1.0000 41 0
24922 1.143845 0.087721 0.830375 128 128 255 1.0000 41 0
24923 0.923234 0.067103 0.852217 128 128 255 1.0000 41 0
24924 0.382979 -0.428571 1.541016 128 128 255 1.0000 41 0
24925 0.259850 -0.439628 1.650625 128 128 255 1.0000 41 0
24926 1.489251 -0.466294 -0.077828 128 128 255 1.0000 41 0
24927 2.218539 -0.433548 1.235056 128 128 255 1.0000 6 0
24928 0.213848 -0.165528 1.507166 128 128 255 1.0000 41 0
24929 1.797825 -0.037962 0.503286 128 128 255 1.0000 41 0
24930 -0.059380 0.096200 0.987650 128 128 255 1.0000 41 0
24931 -0.179643 -0.317569 1.325554 128 128 255 1.0000 41 0
24932 1.836388 -0.633845 -1.256975 128 128 255 1.0000 41 0
24933 1.601181 -0.173570 1.302887 128 128 255 1.0000 41 0
24934 1.950585 -0.153228 0.592894 128 128 255 1.0000 41 0
24935 1.733377 -0.325563 -1.510765 128 128 255 1.0000 41 0
24936 0.996541 0.089461 0.893324 128 128 255 1.0000 41 0
24937 0.822801 -0.662906 0.534002 128 128 255 1.0000 41 0
24938 0.444919 -0.576650 1.595610 128 128 255 1.0000 41 0
24939 1.127627 -0.820018 0.033425 128 128 255 1.0000 41 0
24940 0.352064 0.089141 0.697067 128 128 255 1.0000 6 0
24941 2.166648 -0.358137 0.827564 128 128 255 1.0000 41 0
24942 0.689782 -0.527751 -1.612533 128 128 255 1.0000 41 0
24943 -0.082454 0.094269 0.374015 128 128 255 1.0000 6 0
24944 0.924151 -0.647310 1.513679 128 128 255 1.0000 41 0
24945 0.551018 -0.256822 1.551020 128 128 255 1.0000 41 0
24946 -0.700919 -0.707465 0.385820 128 128 255 1.0000 41 0
24947 0.914371 -0.054440 1.410095 128 128 255 1.0000 41 0
24948 1.951264 -0.069811 0.457914 128 128 255 1.0000 41 0
24949 2.098787 -0.029530 0.654349 128 128 255 1.0000 41 0
24950 2.139952 -0.440980 0.704428 128 128 255 1.0000 41 0
24951 1.247642 -0.063516 1.350081 128 128 255 1.0000 41 0
24952 0.705814 0.053201 0.923187 128 128 255 1.0000 41 0
24953 0.867822 0.088078 1.366068 128 128 255 1.0000 41 0
24954 0.717593 -0.504644 1.372066 128 128 255 1.0000 41 0
24955 1.008053 -0.127594 1.386790 128 128 255 1.0000 41 0
24956 2.195213 -0.435280 1.123476 128 128 255 1.0000 41 0
24957 -0.119836 -0.755062 1.231282 128 128 255 1.0000 6 0
24958 0.719181 -0.496767 1.365857 128 128 255 1.0000 41 0
24959 0.827327 -0.143609 1.539952 128 128 255 1.0000 41 0
24960 -0.655744 -0.103930 0.826181 128 128 255 1.0000 41 0
24961 1.787378 -0.030131 1.268568 128 128 255 1.0000 41 0
24962 -0.826153 -0.525231 0.123676 128 128 255 1.0000 6 0
24963 0.866357 0.030435 0.859446 128 128 255 1.0000 41 0
24964 -0.358059 -0.765570 1.370858 128 128 255 1.0000 6 0
24965 1.079560 -0.122547 1.372584 128 128 255 1.0000 41 0
24966 1.212929 -0.149406 1.359158 128 128 255 1.0000 41 0
24967 0.734106 -0.507495 1.490751 128 128 255 1.0000 41 0
24968 -0.440791 -0.624047 1.367319 128 128 255 1.0000 41 0
24969 1.142876 0.088926 0.832603 128 128 255 1.0000 41 0
24970 2.079426 -0.089986 1.267621 128 128 255 1.0000 41 0
24971 1.375828 0.007314 1.323648 128 128 255 1.0000 41 0
24972 1.054156 0.014781 1.375697 128 128 255 1.0000 41 0
24973 0.949365 -0.670638 1.528683 128 128 255 1.0000 41 0
24974 1.293396 -0.309562 1.453215 128 128 255 1.0000 41 0
24975 1.776954 -0.701175 -0.204178 128 128 255 1.0000 6 0
24976 1.012071 -0.819351 0.110089 128 128 255 1.0000 41 0
24977 0.672887 -0.304460 1.537831 128 128 255 1.0000 41 0
24978 -0.745626 -0.368044 1.152790 128 128 255 1.0000 6 0
24979 1.008251 -0.580603 0.017732 128 128 255 1.0000 37 0
24980 1.775009 -0.044345 -0.254572 128 128 255 1.0000 41 0
24981 0.345914 -0.796079 1.574314 128 128 255 1.0000 41 0
24982 0.444544 -0.569661 1.599479 128 128 255 1.0000 41 0
24983 1.797533 -0.604230 1.369118 128 128 255 1.0000 6 0
24984 1.944363 -0.270306 -0.272818 128 128 255 1.0000 41 0
24985 0.916042 -0.039639 1.398072 128 128 255 1.0000 41 0
24986 2.073798 -0.014925 0.715043 128 128 255 1.0000 41 0
24987 2.148938 -0.451453 1.269864 128 128 255 1.0000 41 0
24988 0.987970 -0.085051 1.385484 128 128 255 1.0000 41 0
24989 0.915733 -0.039661 1.397799 128 128 255 1.0000 41 0
24990 0.989585 -0.009561 1.386932 128 128 255 1.0000 41 0
24991 1.175025 0.002763 1.355861 128 128 255 1.0000 41 0
24992 0.365689 0.081653 0.680973 128 128 255 1.0000 6 0
24993 0.448121 -0.687195 1.607355 128 128 255 1.0000 41 0
24994 0.467418 0.086770 0.662453 128 128 255 1.0000 6 0
24995 0.493040 0.085405 0.534007 128 128 255 1.0000 6 0
24996 0.927937 -0.361737 -1.683103 128 128 255 1.0000 41 0
24997 1.297771 -0.187815 -1.421431 128 128 255 1.0000 41 0
24998 0.814548 -0.111258 1.512300 128 128 255 1.0000 41 0
24999 1.455933 -0.073058 1.310253 128 128 255 1.0000 41 0
25000 1.011347 -0.814576 0.115818 128 128 255 1.0000 41 0
25001 1.946964 -0.330115 -0.271364 128 128 255 1.0000 49 0
25002 0.363395 -0.770319 0.210618 128 128 255 1.0000 41 0
25003 2.167655 -0.331347 0.968738 128 128 255 1.0000 41 0
25004 0.500136 -0.666460 0.577197 128 128 255 1.0000 6 0
25005 1.480162 -0.466945 1.422567 128 128 255 1.0000 41 0
25006 2.059246 -0.436785 0.270898 128 128 255 1.0000 41 0
25007 0.786512 -0.116147 1.512608 128 128 255 1.0000 41 0
25008 1.835670 0.063357 0.809674 128 128 255 1.0000 41 0
25009 -0.840442 -0.117961 0.685550 128 128 255 1.0000 41 0
25010 0.726859 -0.530354 0.834427 128 128 255 1.0000 6 0
25011 2.165556 -0.579592 1.294092 128 128 255 1.0000 41 0
25012 1.312006 -0.049225 1.329259 128 128 255 1.0000 41 0
25013 -0.161355 -0.312772 1.213021 128 128 255 1.0000 6 0
25014 0.170821 -0.784025 0.666471 128 128 255 1.0000 41 0
25015 1.920314 -0.358274 -0.557262 128 128 255 1.0000 41 0
25016 -0.405345 -0.089353 1.140661 128 128 255 1.0000 6 0
25017 2.010101 -0.360834 -0.082838 128 128 255 1.0000 41 0
25018 2.214340 -0.138090 1.145701 128 128 255 1.0000 41 0
25019 1.066685 0.056673 0.755493 128 128 255 1.0000 41 0
25020 -0.238536 -0.786312 1.272395 128 128 255 1.0000 41 0
25021 2.195353 -0.358542 1.031258 128 128 255 1.0000 41 0
25022 -0.278860 -0.779267 0.560670 128 128 255 1.0000 6 0
25023 2.098038 -0.452084 0.840816 128 128 255 1.0000 41 0
25024 2.051718 -0.056134 0.091949 128 128 255 1.0000 41 0
25025 1.552911 -0.832747 0.431118 128 128 255 1.0000 41 0
25026 1.892523 -0.138038 0.522216 128 128 255 1.0000 41 0
25027 0.442237 -0.713809 0.411875 128 128 255 1.0000 6 0
25028 1.769902 -0.544174 -1.150855 128 128 255 1.0000 41 0
25029 1.590623 -0.349162 1.391188 128 128 255 1.0000 41 0
25030 1.104090 -0.308082 1.470391 128 128 255 1.0000 41 0
25031 2.080671 -0.466727 0.378873 128 128 255 1.0000 41 0
25032 0.412814 -0.820867 -0.151723 128 128 255 1.0000 6 0
25033 2.165019 -0.197682 1.011367 128 128 255 1.0000 41 0
25034 1.419490 -0.123767 1.315150 128 128 255 1.0000 41 0
25035 1.985896 0.069119 0.590733 128 128 255 1.0000 41 0
25036 0.841558 -0.604775 1.545598 128 128 255 1.0000 41 0
25037 0.408111 -0.703039 0.696119 128 128 255 1.0000 6 0
25038 0.987281 -0.314803 1.497909 128 128 255 1.0000 41 0
25039 0.710970 -0.038320 1.563025 128 128 255 1.0000 41 0
25040 2.071777 -0.454766 0.763738 128 128 255 1.0000 41 0
25041 1.385195 -0.506717 -1.228962 128 128 255 1.0000 41 0
25042 2.079448 -0.092435 1.199175 128 128 255 1.0000 41 0
25043 1.734894 -0.732202 -1.347838 128 128 255 1.0000 41 0
25044 0.654742 -0.072787 1.571640 128 128 255 1.0000 41 0
25045 -0.746015 -0.430529 0.945204 128 128 255 1.0000 6 0
25046 -0.690608 -0.140224 0.914025 128 128 255 1.0000 41 0
25047 1.676007 -0.826811 1.219077 128 128 255 1.0000 41 0
25048 0.610475 -0.246066 0.228087 128 128 255 1.0000 6 0
25049 -0.672753 -0.428803 1.173735 128 128 255 1.0000 6 0
25050 -0.622979 -0.742271 0.770121 128 128 255 1.0000 41 0
25051 -0.375972 0.033747 0.866995 128 128 255 1.0000 41 0
25052 0.543908 -0.658658 0.907220 128 128 255 1.0000 41 0
25053 0.520917 -0.422851 1.539310 128 128 255 1.0000 6 0
25054 1.879337 -0.535898 -0.344281 128 128 255 1.0000 41 0
25055 2.202886 -0.216862 1.277547 128 128 255 1.0000 41 0
25056 0.546380 -0.697949 0.858714 128 128 255 1.0000 41 0
25057 0.244013 -0.276156 1.561255 128 128 255 1.0000 6 0
25058 0.757922 -0.730502 0.733156 128 128 255 1.0000 42 0
25059 0.780164 -0.531246 1.505050 128 128 255 1.0000 42 0
25060 0.182288 -0.825219 0.938018 128 128 255 1.0000 42 0
25061 0.445192 -0.639085 1.596808 128 128 255 1.0000 42 0
25062 -0.994863 -0.244808 -0.826041 128 128 255 1.0000 6 0
25063 0.601224 -0.536622 0.461109 128 128 255 1.0000 42 0
25064 0.571570 -0.432405 1.541295 128 128 255 1.0000 42 0
25065 1.495077 -0.443144 1.314711 128 128 255 1.0000 42 0
25066 0.778969 -0.299268 1.511368 128 128 255 1.0000 42 0
25067 1.863791 -0.642038 1.354562 128 128 255 1.0000 44 0
25068 1.106824 -0.121487 1.369637 128 128 255 1.0000 42 0
25069 0.626252 0.093769 1.472834 128 128 255 1.0000 6 0
25070 1.441017 -0.190081 1.313545 128 128 255 1.0000 42 0
25071 1.209765 -0.109936 1.352084 128 128 255 1.0000 42 0
25072 1.331271 -0.126055 1.326542 128 128 255 1.0000 42 0
25073 -0.465413 0.095627 -0.296971 128 128 255 1.0000 6 0
25074 1.247376 -0.063231 1.350361 128 128 255 1.0000 42 0
25075 1.507194 -0.075962 1.306035 128 128 255 1.0000 42 0
25076 0.280056 0.087937 -0.217882 128 128 255 1.0000 6 0
25077 1.500496 0.027998 1.310639 128 128 255 1.0000 42 0
25078 1.489985 0.053129 1.319115 128 128 255 1.0000 42 0
25079 0.725986 0.072196 0.853259 128 128 255 1.0000 42 0
25080 1.032327 0.053191 1.197008 128 128 255 1.0000 42 0
25081 0.719029 0.094097 0.945406 128 128 255 1.0000 42 0
25082 0.995867 0.081162 0.896082 128 128 255 1.0000 42 0
25083 0.721170 -0.504503 1.393663 128 128 255 1.0000 42 0
25084 0.864323 -0.445278 1.388255 128 128 255 1.0000 42 0
25085 1.285456 -0.926624 0.288394 128 128 255 1.0000 42 0
25086 -0.061664 -0.841447 0.677253 128 128 255 1.0000 3 0
25087 0.084752 0.090925 -0.234700 128 128 255 1.0000 6 0
25088 1.490555 -0.442984 1.284403 128 128 255 1.0000 42 0
25089 0.767256 -0.237281 1.515956 128 128 255 1.0000 42 0
25090 0.331726 0.090858 0.150820 128 128 255 1.0000 6 0
25091 0.951604 -0.141591 1.393102 128 128 255 1.0000 42 0
25092 1.090511 -0.150819 1.374080 128 128 255 1.0000 42 0
25093 0.719356 -0.111932 0.896952 128 128 255 1.0000 42 0
25094 0.530440 -0.240961 1.558684 128 128 255 1.0000 42 0
25095 1.005163 -0.120886 1.386206 128 128 255 1.0000 42 0
25096 1.185861 -0.121926 1.356664 128 128 255 1.0000 42 0
25097 0.202056 -0.153043 1.489687 128 128 255 1.0000 42 0
25098 0.813493 -0.091119 1.507894 128 128 255 1.0000 42 0
25099 1.432869 -0.113229 1.315772 128 128 255 1.0000 42 0
25100 0.466835 -0.097679 1.543716 128 128 255 1.0000 42 0
25101 0.916312 -0.038699 1.397102 128 128 255 1.0000 42 0
25102 1.254498 -0.047710 1.349255 128 128 255 1.0000 42 0
25103 1.294111 -0.045694 1.340182 128 128 255 1.0000 42 0
25104 1.057935 -0.027670 1.512833 128 128 255 1.0000 42 0
25105 1.090308 -0.026470 1.482672 128 128 255 1.0000 42 0
25106 1.397822 -0.027523 1.326312 128 128 255 1.0000 42 0
25107 0.742183 -0.011270 1.546702 128 128 255 1.0000 42 0
25108 1.200689 -0.002456 1.354647 128 128 255 1.0000 42 0
25109 1.327842 -0.015566 1.335109 128 128 255 1.0000 42 0
25110 0.640660 0.021251 1.324254 128 128 255 1.0000 42 0
25111 0.929015 0.005622 1.414416 128 128 255 1.0000 42 0
25112 1.052419 0.013111 1.375462 128 128 255 1.0000 42 0
25113 1.067139 0.013305 1.372540 128 128 255 1.0000 42 0
25114 0.666966 0.034024 1.437740 128 128 255 1.0000 42 0
25115 1.125935 0.020019 1.379724 128 128 255 1.0000 42 0
25116 0.722955 0.035011 0.905308 128 128 255 1.0000 42 0
25117 0.804903 0.068914 1.380988 128 128 255 1.0000 42 0
25118 0.999417 0.084456 1.368471 128 128 255 1.0000 42 0
25119 1.260877 0.089488 1.243031 128 128 255 1.0000 42 0
25120 1.185007 0.087433 0.848323 128 128 255 1.0000 42 0
25121 1.005449 0.075805 0.903736 128 128 255 1.0000 42 0
25122 1.003050 0.077948 0.901507 128 128 255 1.0000 42 0
25123 0.476512 -0.750582 1.246059 128 128 255 1.0000 42 0
25124 1.134079 -0.648158 1.492542 128 128 255 1.0000 42 0
25125 0.273167 -0.715197 1.266552 128 128 255 1.0000 42 0
25126 0.745659 -0.656437 0.204444 128 128 255 1.0000 42 0
25127 -0.304614 -0.879365 0.682053 128 128 255 1.0000 6 0
25128 0.566210 -0.335507 1.592908 128 128 255 1.0000 42 0
25129 1.017160 -0.109186 1.391815 128 128 255 1.0000 42 0
25130 0.958467 -0.102126 1.447273 128 128 255 1.0000 42 0
25131 1.627960 -0.213728 1.325887 128 128 255 1.0000 42 0
25132 0.308240 -0.138938 1.578070 128 128 255 1.0000 42 0
25133 0.390957 -0.045711 1.424806 128 128 255 1.0000 42 0
25134 -0.707923 -0.667067 -0.206499 128 128 255 1.0000 1 0
25135 1.137853 -0.043390 1.361834 128 128 255 1.0000 42 0
25136 1.377594 0.035414 1.326794 128 128 255 1.0000 42 0
25137 1.432967 0.043767 1.316277 128 128 255 1.0000 42 0
25138 0.930744 0.045991 1.395224 128 128 255 1.0000 42 0
25139 0.723867 0.053114 0.896108 128 128 255 1.0000 42 0
25140 0.725168 0.072754 0.852143 128 128 255 1.0000 42 0
25141 1.080987 0.070151 0.841080 128 128 255 1.0000 42 0
25142 0.689617 0.089440 0.951365 128 128 255 1.0000 42 0
25143 1.055896 0.064917 1.193254 128 128 255 1.0000 42 0
25144 1.002671 0.077565 0.902247 128 128 255 1.0000 42 0
25145 0.975925 0.093257 1.271452 128 128 255 1.0000 42 0
25146 1.050767 0.090316 1.189361 128 128 255 1.0000 42 0
25147 0.869256 -0.727669 1.476621 128 128 255 1.0000 42 0
25148 0.192433 -0.752492 -0.346801 128 128 255 1.0000 6 0
25149 0.981368 -0.175772 1.391855 128 128 255 1.0000 42 0
25150 1.585790 -0.458135 0.613441 128 128 255 1.0000 42 0
25151 1.419952 -0.673292 -0.268863 128 128 255 1.0000 42 0
25152 0.914701 -0.145876 1.396940 128 128 255 1.0000 42 0
25153 1.810137 -0.387011 1.379366 128 128 255 1.0000 42 0
25154 1.311476 -0.672591 -0.916038 128 128 255 1.0000 42 0
25155 0.765603 -0.127503 1.519567 128 128 255 1.0000 42 0
25156 1.226076 -0.110048 1.442429 128 128 255 1.0000 42 0
25157 0.597174 -0.063100 0.084668 128 128 255 1.0000 42 0
25158 0.367868 0.011804 1.325463 128 128 255 1.0000 42 0
25159 1.058642 -0.016397 1.512438 128 128 255 1.0000 42 0
25160 0.640732 0.021211 1.324465 128 128 255 1.0000 42 0
25161 1.038945 0.007620 1.376391 128 128 255 1.0000 42 0
25162 0.754162 0.088413 1.307504 128 128 255 1.0000 42 0
25163 0.811065 0.095404 1.377464 128 128 255 1.0000 42 0
25164 1.069711 0.071840 0.836238 128 128 255 1.0000 42 0
25165 0.695959 0.078807 0.941150 128 128 255 1.0000 42 0
25166 1.049324 0.053511 1.192016 128 128 255 1.0000 42 0
25167 1.055833 0.064899 1.193362 128 128 255 1.0000 42 0
25168 0.713952 -0.453386 0.895978 128 128 255 1.0000 42 0
25169 1.212244 -0.449400 0.925716 128 128 255 1.0000 42 0
25170 1.085285 -0.347053 1.486140 128 128 255 1.0000 42 0
25171 1.587869 -0.571369 0.764628 128 128 255 1.0000 42 0
25172 1.358126 -0.456043 0.431427 128 128 255 1.0000 42 0
25173 0.508502 -0.671943 0.577358 128 128 255 1.0000 1 0
25174 0.511439 -0.544778 -0.358885 128 128 255 1.0000 6 0
25175 0.778800 -0.231450 1.513896 128 128 255 1.0000 42 0
25176 0.148734 -0.766915 -0.393609 128 128 255 1.0000 42 0
25177 0.716543 -0.112555 0.895675 128 128 255 1.0000 42 0
25178 0.941203 -0.684135 -0.809484 128 128 255 1.0000 42 0
25179 0.533242 -0.105471 1.553376 128 128 255 1.0000 42 0
25180 0.523648 -0.118747 -0.409619 128 128 255 1.0000 42 0
25181 0.489779 -0.039659 1.493744 128 128 255 1.0000 42 0
25182 0.600654 -0.062454 0.090246 128 128 255 1.0000 42 0
25183 1.770843 -0.041230 0.410101 128 128 255 1.0000 42 0
25184 0.519906 -0.543899 -0.592713 128 128 255 1.0000 6 0
25185 0.957075 0.011275 1.405380 128 128 255 1.0000 42 0
25186 0.718444 0.032354 0.865435 128 128 255 1.0000 42 0
25187 1.111909 0.050402 1.379784 128 128 255 1.0000 42 0
25188 1.329799 0.072255 1.335956 128 128 255 1.0000 42 0
25189 1.064962 0.055875 0.760952 128 128 255 1.0000 42 0
25190 0.722882 0.053186 0.895157 128 128 255 1.0000 42 0
25191 0.898604 0.046038 0.854652 128 128 255 1.0000 42 0
25192 1.156603 0.081532 0.830569 128 128 255 1.0000 42 0
25193 -1.231843 -0.580759 -0.022452 128 128 255 1.0000 6 0
25194 0.824560 0.061134 0.863284 128 128 255 1.0000 42 0
25195 0.633559 0.092286 0.975817 128 128 255 1.0000 42 0
25196 0.672239 0.092704 0.962155 128 128 255 1.0000 42 0
25197 0.644823 0.093184 0.970235 128 128 255 1.0000 42 0
25198 1.196249 -0.794394 1.346504 128 128 255 1.0000 42 0
25199 0.383913 -0.577299 -0.952679 128 128 255 1.0000 6 0
25200 0.991892 -0.792343 0.509894 128 128 255 1.0000 42 0
25201 0.781166 -0.515719 1.468387 128 128 255 1.0000 42 0
25202 0.778005 -0.374690 1.512604 128 128 255 1.0000 42 0
25203 0.279142 -0.257105 1.472058 128 128 255 1.0000 42 0
25204 1.262729 -0.142557 1.346229 128 128 255 1.0000 42 0
25205 0.811718 -0.108323 1.513931 128 128 255 1.0000 42 0
25206 1.455975 -0.124868 1.306969 128 128 255 1.0000 42 0
25207 0.040989 -0.162391 1.585429 128 128 255 1.0000 42 0
25208 1.098140 -0.043552 1.366839 128 128 255 1.0000 42 0
25209 1.458260 -0.074323 1.312974 128 128 255 1.0000 42 0
25210 1.198444 -0.036506 1.354143 128 128 255 1.0000 42 0
25211 0.619940 -0.012569 1.530700 128 128 255 1.0000 42 0
25212 0.731323 -0.011217 1.557801 128 128 255 1.0000 42 0
25213 0.927826 0.006235 1.413223 128 128 255 1.0000 42 0
25214 1.175373 0.002767 1.355488 128 128 255 1.0000 42 0
25215 1.519808 0.046831 0.672858 128 128 255 1.0000 42 0
25216 1.112296 0.050300 1.380094 128 128 255 1.0000 42 0
25217 0.723804 0.064953 0.835979 128 128 255 1.0000 42 0
25218 0.727046 0.072844 0.852342 128 128 255 1.0000 42 0
25219 0.946917 0.075978 1.371428 128 128 255 1.0000 42 0
25220 0.726662 0.088017 0.915292 128 128 255 1.0000 42 0
25221 1.075533 -0.327483 1.478550 128 128 255 1.0000 42 0
25222 0.561417 -0.542785 0.184701 128 128 255 1.0000 1 0
25223 0.420274 -0.263802 1.535461 128 128 255 1.0000 42 0
25224 1.235176 -0.176519 1.349801 128 128 255 1.0000 42 0
25225 1.323909 -0.538369 -0.381898 128 128 255 1.0000 42 0
25226 1.016209 -0.109330 1.396700 128 128 255 1.0000 42 0
25227 1.373504 -0.173145 1.331343 128 128 255 1.0000 42 0
25228 0.958413 -0.101370 1.447621 128 128 255 1.0000 42 0
25229 0.443807 -0.146273 1.525965 128 128 255 1.0000 42 0
25230 0.531633 -0.181963 1.555173 128 128 255 1.0000 6 0
25231 1.212711 0.007997 0.823461 128 128 255 1.0000 42 0
25232 0.635487 -0.052755 1.573005 128 128 255 1.0000 6 0
25233 1.198244 0.021032 1.354125 128 128 255 1.0000 42 0
25234 0.720104 0.035582 0.904143 128 128 255 1.0000 42 0
25235 1.234188 0.067884 0.829872 128 128 255 1.0000 42 0
25236 1.151038 0.058124 0.838190 128 128 255 1.0000 42 0
25237 0.725427 0.057630 0.910912 128 128 255 1.0000 42 0
25238 0.866285 0.076157 1.364940 128 128 255 1.0000 42 0
25239 0.217672 0.083652 1.277145 128 128 255 1.0000 6 0
25240 0.640571 0.086713 0.969685 128 128 255 1.0000 42 0
25241 0.995627 0.091483 1.371683 128 128 255 1.0000 42 0
25242 0.744631 0.092253 0.900533 128 128 255 1.0000 42 0
25243 0.716898 0.091623 0.943469 128 128 255 1.0000 43 0
25244 1.005649 0.074495 0.904038 128 128 255 1.0000 42 0
25245 0.955025 0.072454 0.893919 128 128 255 1.0000 42 0
25246 0.779036 -0.524523 1.496570 128 128 255 1.0000 42 0
25247 0.801174 -0.408177 1.513144 128 128 255 1.0000 42 0
25248 1.002538 -0.178348 1.394814 128 128 255 1.0000 42 0
25249 1.084962 -0.158587 1.370941 128 128 255 1.0000 42 0
25250 0.912665 -0.142623 1.394653 128 128 255 1.0000 42 0
25251 0.715838 -0.112506 0.894958 128 128 255 1.0000 42 0
25252 0.883533 -0.136807 1.422209 128 128 255 1.0000 42 0
25253 1.161011 -0.126584 1.363643 128 128 255 1.0000 42 0
25254 0.541336 -0.039692 1.519557 128 128 255 1.0000 42 0
25255 1.203332 -0.037908 1.360431 128 128 255 1.0000 42 0
25256 1.733179 -0.073241 0.479805 128 128 255 1.0000 42 0
25257 0.358264 -0.004275 1.369520 128 128 255 1.0000 42 0
25258 1.051192 0.034289 0.707022 128 128 255 1.0000 42 0
25259 0.367883 0.072966 1.245724 128 128 255 1.0000 42 0
